# .PCD v0.7 - Point Cloud Data file format
VERSION 0.7
FIELDS x y z
SIZE 4 4 4
TYPE F F F
COUNT 1 1 1
WIDTH 1907
HEIGHT 1
VIEWPOINT 0 0 0 1 0 0 0
POINTS 1907
DATA ascii
3.44504 6.80193 0.952939
3.45513 6.83436 0.823994
3.44001 6.85067 0.626244
3.47729 -0.779508 0.533476
3.47358 -0.197266 -0.246009
3.47041 -0.0392632 -0.244223
3.46872 6.71471 -0.110151
3.47763 6.72408 -0.0907539
3.47472 6.72174 -0.0768497
3.47006 6.80654 0.307986
3.46425 6.81292 0.899453
3.47944 6.82527 0.83196
3.46394 6.84931 0.643456
3.46728 6.88247 0.627526
3.49894 -0.931567 -0.283783
3.48047 -0.928991 0.142736
3.49265 -0.358081 -0.255112
3.48191 0.391318 0.272988
3.49717 0.454364 0.230225
3.49194 6.80863 0.896599
3.48187 6.81061 0.927575
3.48339 6.83624 0.319065
3.49849 6.82188 0.820041
3.49939 6.82758 0.846245
3.49447 6.8228 0.963108
3.4979 6.84055 0.335358
3.48736 6.91871 0.63988
3.48665 6.94516 0.630701
3.4905 11.5849 0.0916597
3.48324 11.6158 0.11157
3.49691 11.7374 0.379689
3.49507 11.7469 0.402983
3.50224 -0.701524 0.535934
3.51605 -0.35371 0.22382
3.51996 -0.271703 0.224699
3.50204 0.538442 0.228137
3.51158 6.81625 0.874028
3.50993 6.81158 0.951906
3.5068 6.85057 0.355776
3.51779 6.949 0.633142
3.51402 11.5886 0.0660028
3.51823 11.7239 0.350467
3.53501 -1.14763 0.74696
3.53392 -0.934014 -0.221359
3.5312 -0.933984 -0.138283
3.52046 -0.934459 0.206011
3.53359 -0.930175 0.278937
3.52281 -0.853462 -0.286307
3.53809 -0.846951 -0.138332
3.53373 -0.772469 -0.284561
3.5252 -0.623542 0.538423
3.53592 -0.341041 0.280834
3.53785 -0.191631 0.223314
3.52484 6.77529 -0.0946595
3.53223 6.7784 -0.0744748
3.52943 6.78638 -0.0852578
3.53019 6.7829 -0.0553431
3.53056 6.81003 0.903042
3.52242 6.82223 0.827301
3.52554 6.85374 0.314044
3.52866 6.84743 0.648061
3.53462 7.01361 0.634351
3.53928 11.5827 0.0880889
3.53075 11.6037 0.112674
3.53904 11.9591 0.628245
3.53815 11.9613 0.609294
3.54833 -0.883412 0.656966
3.55976 -0.852884 -0.224843
3.55046 -0.848081 0.276616
3.55644 -0.800226 0.734838
3.54962 -0.690423 -0.284868
3.559 -0.628253 0.653833
3.54459 -0.606522 -0.279803
3.55637 -0.583873 0.355804
3.55414 -0.54653 0.539795
3.55316 -0.530055 0.153045
3.54777 -0.25893 0.27759
3.55964 -0.176842 0.275346
3.54475 -0.110596 0.223123
3.55114 0.38059 0.221639
3.54766 6.81222 0.9293
3.54667 6.8204 0.833495
3.55949 6.83116 0.962036
3.54411 6.85627 0.322319
3.55666 6.87149 0.341937
3.55966 6.89941 0.366862
3.54463 6.94465 0.644286
3.54932 6.942 0.875377
3.54359 6.95942 0.942905
3.54702 7.11611 0.367562
3.54761 7.16584 0.393149
3.54814 7.20555 0.41942
3.54976 7.27187 0.384508
3.55364 7.31923 0.402049
3.55146 7.36935 0.428621
3.55042 7.4079 0.453839
3.55684 7.44933 0.414189
3.55848 11.574 0.065998
3.55997 11.7379 0.359338
3.54813 11.7395 0.403294
3.55478 11.7538 0.374796
3.54605 11.9688 0.648633
3.55674 11.9662 0.677675
3.57122 -0.864615 0.130844
3.57522 -0.802332 0.655465
3.56429 -0.808872 0.792535
3.5742 -0.781704 0.135761
3.57025 -0.774322 0.204024
3.57926 -0.723926 0.796313
3.56416 -0.628025 0.728788
3.57267 -0.58969 -0.144787
3.57402 -0.542918 0.725646
3.57904 -0.524377 0.2098
3.57604 -0.511925 0.275168
3.57051 -0.0947554 0.273118
3.56062 -0.0315032 0.220747
3.56139 -0.0127165 0.272199
3.56952 0.0505332 0.220548
3.56628 0.068339 0.27104
3.57544 0.449574 0.181877
3.57945 6.82967 -0.0803791
3.56308 6.82599 0.825835
3.56803 6.82252 0.845787
3.56287 6.95509 0.899942
3.56344 6.97468 0.333254
3.56401 7.01129 0.63658
3.56731 7.45938 0.426619
3.57925 7.46043 0.444785
3.57124 11.7253 0.34505
3.58463 -1.15647 0.656945
3.59201 -1.10636 1.01516
3.59509 -0.719237 0.653121
3.5803 -0.717103 0.731432
3.59787 -0.548136 0.651123
3.59729 -0.515688 -0.227453
3.58121 -0.500723 0.351383
3.59807 -0.467502 0.540982
3.59175 0.0377488 0.16988
3.58038 0.135618 0.218391
3.59308 0.152538 0.264612
3.58358 0.284626 0.177849
3.59613 0.302759 0.215097
3.5895 0.490894 0.253665
3.58638 6.83125 -0.0732545
3.58683 6.83268 -0.0571963
3.58496 6.83851 -0.0360199
3.58063 6.85354 0.830885
3.58982 6.8626 0.654168
3.58044 6.95871 0.832198
3.58217 6.95041 0.924005
3.59223 6.97794 0.829924
3.59896 6.96865 0.841706
3.58511 7.05446 0.635155
3.58153 7.04925 0.652964
3.59707 7.19015 0.939721
3.58817 7.46044 0.464887
3.58132 11.5605 0.045795
3.58978 11.5833 0.0836197
3.58071 11.5999 0.111066
3.59364 11.9548 0.606654
3.59675 11.9579 0.626796
3.60141 -0.981351 0.654825
3.61127 -0.773838 0.269425
3.61931 -0.604541 -0.233898
3.60088 -0.465732 0.593002
3.60478 0.322744 0.258453
3.61829 0.580119 0.246325
3.60871 6.90353 0.956817
3.61131 6.99448 0.832642
3.60405 7.11143 0.917299
3.60299 7.19801 0.663878
3.60657 7.20329 0.64407
3.60492 7.20192 0.877138
3.60813 7.45375 0.412852
3.60371 11.5601 0.0640218
3.61071 11.7288 0.356569
3.60766 11.7501 0.37222
3.60675 11.7515 0.400269
3.60251 11.9556 0.648794
3.61661 11.9567 0.678989
3.60219 11.9584 0.822973
3.62619 -0.533939 -0.300362
3.62239 0.371816 0.172306
3.637 6.86252 -0.0737519
3.62619 6.88483 0.882366
3.63652 6.93613 0.661967
3.62233 6.97164 0.903073
3.63387 6.99893 0.833013
3.62509 7.02159 0.63853
3.62937 7.12484 0.00548017
3.62981 7.14764 0.0222126
3.62779 7.16837 0.0468587
3.62622 7.17064 0.0669252
3.63132 7.16484 0.898251
3.62968 7.1885 0.67986
3.63352 7.20769 0.650488
3.62929 7.32397 0.0667887
3.62601 7.35644 0.0867891
3.6255 7.37205 0.109288
3.62414 7.37569 0.130401
3.62192 7.4526 0.423963
3.63602 7.449 0.443004
3.63864 7.46897 0.109477
3.6315 11.5634 0.0363929
3.63881 11.5776 0.0799389
3.63437 11.6029 0.105707
3.62208 11.7213 0.33944
3.62225 11.9595 0.855231
3.6563 -0.784186 -0.249727
3.64192 6.86503 -0.0656178
3.64403 6.87394 -0.0453044
3.64223 6.87477 -0.024285
3.64501 6.99944 0.834144
3.65904 6.98679 0.840892
3.65786 7.05538 0.835038
3.65422 7.14982 0.831976
3.64957 7.16202 0.916359
3.65156 7.19531 0.836384
3.65755 7.20885 0.836873
3.64453 7.45114 0.465171
3.64257 7.47435 0.121693
3.6474 7.47363 0.159741
3.65328 11.5587 0.0574804
3.65012 11.9503 0.603087
3.6556 11.9552 0.624309
3.65763 11.9472 0.820187
3.64183 11.9664 0.890667
3.66039 -1.17548 0.575286
3.66626 -0.997521 0.579405
3.67031 7.17673 0.883016
3.66391 7.16845 0.940721
3.66311 7.19413 0.665371
3.67875 7.18237 0.835254
3.66754 7.20009 0.642592
3.66237 7.4492 0.409261
3.67716 7.44998 0.422444
3.6766 11.729 0.332236
3.66757 11.7383 0.350446
3.6667 11.76 0.368131
3.67336 11.7797 0.392834
3.66292 11.954 0.648359
3.67633 11.9508 0.680415
3.67491 11.9452 0.855318
3.68223 -1.17668 0.499889
3.68306 -0.883756 0.182676
3.69145 -0.163968 0.327625
3.68399 0.0943349 0.317846
3.69156 7.16388 0.901839
3.69064 7.44711 0.443503
3.69108 7.47283 0.106133
3.68664 11.5779 0.0214077
3.69474 11.9074 0.602194
3.69812 11.9485 0.890681
3.7055 -1.14924 0.976367
3.7197 -0.340054 0.330024
3.7082 7.12409 0.680634
3.70369 7.17421 0.64915
3.70903 7.16781 0.91715
3.70497 7.18331 0.833551
3.71472 7.18025 0.841559
3.71837 7.23011 0.643058
3.71217 7.22646 0.669894
3.71625 7.45182 0.406894
3.70033 7.4476 0.466631
3.70055 7.47453 0.138301
3.70224 7.4742 0.15932
3.70901 11.6284 0.0552464
3.70417 11.6509 0.084921
3.71373 11.9482 0.622684
3.71368 11.9438 0.817653
3.73682 7.15706 0.88908
3.72941 7.15786 0.941058
3.72589 7.18293 0.836755
3.73299 7.44654 0.420906
3.73557 11.1816 0.161494
3.73199 11.2077 0.182293
3.72051 11.3029 0.18918
3.72419 11.6153 0.0289739
3.72354 11.9537 0.647972
3.73523 11.9443 0.682814
3.7345 11.9418 0.854822
3.72663 11.9455 0.936904
3.75566 7.15707 0.905282
3.7416 7.17319 0.83861
3.75232 7.21241 0.651852
3.74343 7.20171 0.688444
3.74667 7.44503 0.443011
3.75515 7.44706 0.468175
3.74334 7.47531 0.101744
3.75454 7.47949 0.13801
3.75708 7.47472 0.159897
3.74002 11.1509 0.143564
3.74657 11.2546 0.19993
3.74463 11.5986 0.00464439
3.75572 11.934 0.891813
3.77384 -0.571371 0.581814
3.76589 7.17529 0.834922
3.77807 7.17378 0.847006
3.77259 7.16187 0.919614
3.77172 7.45065 0.403422
3.76994 11.1604 0.161179
3.77126 11.1917 0.18119
3.77084 11.875 0.317794
3.77153 11.8979 0.337533
3.76951 11.9355 0.815959
3.77801 11.932 0.935003
3.76575 11.9409 0.59497
3.77439 11.9481 0.619298
3.78346 -1.13533 0.976485
3.79813 -0.937272 0.57378
3.79871 7.15711 0.894718
3.79299 7.15199 0.941523
3.79041 7.17498 0.837164
3.78811 7.20249 0.639899
3.78037 7.20254 0.670839
3.78805 7.4475 0.419499
3.78035 11.1435 0.136739
3.79188 11.9001 0.288785
3.78451 11.9324 0.362768
3.79122 11.9304 0.854042
3.78159 11.9417 0.647188
3.79864 11.9436 0.683441
3.79031 11.9414 0.940426
3.81591 7.1597 0.908983
3.80323 7.17287 0.842232
3.81628 7.20147 0.651161
3.80343 7.20133 0.692048
3.80798 7.45218 0.0886685
3.81387 7.45642 0.104872
3.80291 7.44434 0.442564
3.81256 7.44469 0.469688
3.81994 7.46012 0.154077
3.83781 7.15342 0.922016
3.82784 7.17281 0.836478
3.82037 7.45469 0.126895
3.82977 7.44765 0.39992
3.82699 11.9283 0.813319
3.82042 11.9355 0.892522
3.83322 11.9236 0.9343
3.8265 11.9458 0.589743
3.83378 11.9445 0.616792
3.84438 -1.16938 0.901705
3.85542 -0.729712 -0.303552
3.84485 0.0128328 0.301414
3.85906 7.14415 0.941953
3.85158 7.17204 0.835696
3.84112 7.16951 0.852519
3.8442 7.19513 0.672259
3.85037 7.20262 0.63854
3.84472 7.44964 0.418145
3.84953 11.9201 0.853315
3.85138 11.9305 0.942711
3.84383 11.9427 0.646854
3.85688 11.9631 0.320451
3.85869 11.9639 0.354514
3.86307 7.15161 0.900206
3.86798 7.16615 0.846685
3.87886 7.19932 0.651734
3.86587 7.20265 0.696731
3.86636 7.4468 0.0810921
3.87058 7.45473 0.100396
3.86114 7.44262 0.442105
3.87077 7.4429 0.471228
3.87269 11.9582 0.26943
3.8622 11.9574 0.294313
3.86263 11.9421 0.684049
3.88681 -0.297937 -0.371856
3.88167 7.15394 0.913477
3.89315 7.16897 0.838026
3.8822 7.44311 0.120159
3.88524 7.44237 0.147182
3.88902 7.44306 0.395379
3.89747 11.9149 -0.0918779
3.89123 11.9146 0.93261
3.88278 11.9386 -0.0622665
3.88975 11.931 0.811044
3.88166 11.9297 0.893966
3.88649 11.9415 0.586219
3.89457 11.9407 0.615294
3.88109 11.9698 -0.0292811
3.90122 -0.260265 0.304082
3.90003 7.15858 0.923816
3.91573 7.17352 0.835399
3.90554 7.16494 0.859037
3.90724 7.19569 0.674923
3.91182 7.20217 0.637153
3.90456 7.4442 0.414584
3.90476 11.9353 0.645244
3.91687 11.9284 0.852264
3.9135 11.9216 0.946068
3.91696 11.9549 0.317805
3.92936 7.14494 0.906677
3.92406 7.14521 0.941651
3.93296 7.16446 0.850298
3.93314 7.19023 0.70103
3.92136 7.43988 0.441635
3.92345 7.44797 0.0747095
3.9328 7.44601 0.0917525
3.93119 7.44152 0.471803
3.93438 11.9333 -0.135947
3.927 11.9384 0.684592
3.9334 11.9543 0.261925
3.92309 11.9549 0.288854
3.92015 11.9555 0.353876
3.95018 7.144 0.917867
3.95984 7.16486 0.83958
3.94723 7.18904 0.651109
3.94293 7.43944 0.115662
3.95244 7.43286 0.389703
3.94413 7.44104 0.14374
3.95239 11.8312 -0.107963
3.95748 11.9116 -0.100372
3.94866 11.92 0.808298
3.95277 11.9128 0.932184
3.94129 11.9289 -0.0669744
3.94385 11.9341 0.581569
3.95618 11.9376 0.611824
3.94323 11.9217 0.895344
3.94919 11.9806 -0.0392506
3.96511 -1.16463 0.950962
3.96939 7.14566 0.92612
3.97467 7.16238 0.864667
3.97178 7.19244 0.676481
3.96795 7.43393 0.410907
3.97826 11.9195 0.948664
3.96671 11.9299 0.644707
3.97871 11.9219 0.85169
3.9951 7.13342 0.943006
3.99317 7.14024 0.912185
3.98243 7.16944 0.835953
3.99963 7.16027 0.85385
3.98253 7.18869 0.63445
3.99756 7.1905 0.7047
3.996 7.43926 0.0841821
3.98219 7.43636 0.440145
3.9993 7.4247 0.470969
3.98606 7.44209 0.0651591
3.99064 11.8839 0.949668
3.99736 11.911 -0.0689685
3.99232 11.9318 0.685049
3.99311 11.9484 0.255347
3.98419 11.9488 0.283283
3.98042 11.9556 0.313474
3.98242 11.9477 0.352266
4.01294 -0.887857 0.56361
4.00372 -0.0766695 0.284825
4.01841 7.13266 0.92221
4.01076 7.19244 0.651867
4.00072 7.44603 0.11446
4.00434 7.44442 0.143462
4.00878 7.44221 0.387572
4.00236 11.872 -0.0961604
4.00937 11.9151 0.805765
4.00448 11.9159 0.896789
4.01438 11.9039 0.930532
4.00753 11.9349 0.577246
4.0169 11.9289 0.609168
4.02586 -1.24608 0.203794
4.02449 -1.20581 0.840022
4.02085 -0.79285 0.564734
4.02978 -0.698864 0.566819
4.02623 7.16296 0.8412
4.03934 7.19006 0.679099
4.03435 7.42463 0.407291
4.03539 11.9105 0.850911
4.03559 11.9321 0.642478
4.04233 7.13267 0.929458
4.04187 7.15726 0.871197
4.04997 7.16595 0.835534
4.04956 7.1873 0.632091
4.04402 7.43478 0.439728
4.04474 7.44445 0.0588304
4.05197 7.44829 0.0810376
4.04847 11.8705 0.948836
4.04895 11.911 -0.153487
4.04096 11.9098 0.952002
4.05303 11.9008 0.993865
4.05961 11.9553 0.245239
4.04806 11.9524 0.277045
4.0477 11.9579 0.307233
4.05824 11.9653 0.345594
4.07635 -1.26029 0.298712
4.06953 -0.138684 0.525433
4.07752 0.0656357 -0.42624
4.06497 7.12879 0.919562
4.06368 7.13081 0.943626
4.06929 7.16051 0.858573
4.07662 7.19261 0.651545
4.06775 7.18258 0.70917
4.07678 7.42919 0.380854
4.06014 7.42609 0.471636
4.06347 7.44142 0.107953
4.06292 7.4516 0.142287
4.07349 11.8933 0.9298
4.07066 11.9094 0.803212
4.06982 11.913 0.898367
4.07041 11.9353 0.571896
4.06095 11.9324 0.685773
4.08698 -0.679999 0.1252
4.0942 -0.128762 0.698354
4.08337 0.158714 -0.428131
4.08722 7.12769 0.926759
4.09366 7.42994 0.405063
4.09725 7.45964 0.0558447
4.09466 11.895 0.354757
4.098 11.9043 0.248024
4.09484 11.9102 0.278196
4.09028 11.9062 0.312042
4.08631 11.9389 0.605191
4.11908 -0.134026 0.625814
4.11897 -0.0389802 0.625063
4.10381 0.443115 -0.440728
4.10894 7.1275 0.931978
4.10072 7.15444 0.843695
4.11042 7.15547 0.877845
4.11774 7.18424 0.630691
4.10806 7.18607 0.680677
4.11202 7.42661 0.437164
4.11101 7.45338 0.0767996
4.11038 11.8931 0.687041
4.10312 11.913 0.850681
4.11889 11.9254 0.956293
4.11256 11.9537 0.639947
4.12589 -1.28138 0.00832808
4.12627 -1.28049 0.0973788
4.1361 -1.21254 0.550014
4.13342 -0.0455902 0.524642
4.13814 -0.0427008 0.571656
4.12503 -0.0336108 0.694123
4.13899 7.11758 0.92697
4.12621 7.15142 0.835856
4.13437 7.18314 0.713872
4.12812 7.41784 0.471071
4.12164 7.45083 0.105844
4.13187 7.44537 0.137794
4.12317 11.8744 0.606536
4.1397 11.8685 0.643539
4.13778 11.891 0.928387
4.12246 11.9079 0.568564
4.12224 11.9055 0.99572
4.14644 -1.21857 0.635746
4.14581 0.0581427 0.621942
4.14885 0.0655556 0.689097
4.15868 0.155227 0.620037
4.14107 7.11481 0.944914
4.14154 7.15162 0.863034
4.14617 7.18923 0.652151
4.14184 7.42515 0.375389
4.15468 11.8567 0.955493
4.15178 11.8765 0.849028
4.15994 11.8989 0.239483
4.15535 11.8999 0.273487
4.15716 11.9058 0.30671
4.14571 11.933 0.80072
4.15064 11.9367 0.900944
4.17257 -1.23026 0.77812
4.1678 -1.19794 0.927018
4.16536 0.0483973 0.52737
4.16204 0.0533482 0.571556
4.16932 0.144329 0.531579
4.16597 0.147328 0.573718
4.16666 0.162716 0.684116
4.17986 0.245366 0.573821
4.17156 0.250287 0.619085
4.1715 0.260838 0.68036
4.17731 0.358985 0.675588
4.1796 0.755523 0.657923
4.16044 7.11961 0.932256
4.16902 7.15503 0.845413
4.17644 7.18425 0.683321
4.16128 7.424 0.401566
4.1612 7.45854 0.046459
4.17128 7.45694 0.0705246
4.17596 11.7874 -0.144077
4.16963 11.8499 0.797345
4.17546 11.8506 0.898482
4.16936 11.8706 0.565866
4.17504 11.8823 0.68836
4.16672 11.901 0.34868
4.19384 -1.12979 0.732148
4.18126 0.243293 0.534735
4.1922 0.343256 0.53793
4.18277 0.343367 0.575094
4.18641 0.349396 0.616197
4.19914 0.442214 0.541164
4.19227 0.448472 0.614448
4.18315 0.456108 0.671793
4.19908 0.541165 0.544506
4.19658 0.544401 0.576635
4.18913 0.548537 0.612862
4.19196 0.556257 0.667023
4.18949 0.642392 0.578063
4.19499 0.648612 0.611137
4.19078 0.657395 0.662431
4.18138 0.741404 0.57853
4.19684 0.749706 0.608498
4.18824 7.1103 0.935249
4.19671 7.15598 0.83572
4.18318 7.14928 0.884398
4.18002 7.41843 0.434601
4.19277 7.42075 0.472825
4.18224 7.45705 0.103658
4.19039 7.4575 0.137775
4.19876 11.8792 -0.134945
4.19126 11.876 0.602282
4.19549 11.8771 0.927537
4.19963 11.9265 0.999176
4.21679 -1.23143 0.46328
4.20066 0.445408 0.57523
4.20404 0.642097 0.548818
4.20898 0.741053 0.552083
4.21604 7.10358 0.934321
4.21239 7.10797 0.946429
4.21459 7.14688 0.867634
4.21654 7.18645 0.651783
4.20378 7.18325 0.717587
4.20792 7.42309 0.369997
4.21651 11.7469 -0.141936
4.21002 11.8577 0.848031
4.21005 11.8754 0.641477
4.22101 -1.24287 0.735053
4.23993 -1.19139 0.997081
4.23669 -1.18079 1.0494
4.23357 -1.17234 0.910596
4.23657 -1.14731 0.78309
4.23954 -1.15977 0.844774
4.23885 -1.15454 0.996969
4.23986 -1.09262 0.27813
4.23863 7.10761 0.937681
4.23031 7.41787 0.397077
4.23496 7.45932 0.0642476
4.22148 7.46213 0.0391846
4.22155 11.8389 0.993637
4.23871 11.8558 0.795236
4.22746 11.8553 0.959196
4.23688 11.8731 0.560632
4.22227 11.8996 0.265157
4.237 11.8994 0.344345
4.22805 11.902 0.229273
4.22546 11.9002 0.301228
4.24131 -1.13474 0.963386
4.24585 -1.11505 0.93477
4.25176 -1.08924 0.992312
4.25146 -1.06176 0.845907
4.25346 -1.07327 0.90963
4.25355 -1.04739 0.788192
4.25472 -1.05346 0.995113
4.25825 -1.03375 0.965512
4.25985 -1.01716 0.94087
4.24771 -0.988543 0.276469
4.25656 -0.985068 0.986698
4.25934 -0.973495 1.03995
4.25943 -0.714413 0.0216678
4.25682 -0.690097 0.177346
4.24095 7.15201 0.848055
4.24876 7.18035 0.684938
4.24647 7.41902 0.433298
4.25981 7.42049 0.472502
4.25099 7.45451 0.0962774
4.25972 7.45409 0.132374
4.24035 11.8376 0.924749
4.24794 11.8515 0.899253
4.25729 11.8737 0.598882
4.24258 11.876 0.687854
4.26053 -1.07766 1.04547
4.27467 -1.04358 0.726929
4.27039 -0.963765 0.847932
4.26533 -0.971191 0.907859
4.27261 -0.953396 0.994201
4.2742 -0.937781 0.968535
4.27583 -0.918238 0.945963
4.26054 -0.886436 0.273683
4.2764 -0.884932 0.982757
4.27622 -0.874134 0.906984
4.27918 -0.87336 1.03601
4.26047 -0.814315 0.016287
4.26288 7.10559 0.938866
4.26043 7.13644 0.891787
4.27231 7.14945 0.836289
4.27608 7.17924 0.722203
4.27539 7.42081 0.364612
4.27799 11.7437 -0.155417
4.27737 11.8152 0.993461
4.27957 11.8541 0.84763
4.27989 11.8746 0.639164
4.27737 11.8998 -0.156503
4.28224 -0.896695 -0.332139
4.28432 -0.862777 0.850104
4.28752 -0.856359 0.994264
4.29214 -0.837789 0.970622
4.28361 -0.807044 0.0901293
4.29383 -0.819341 0.952025
4.29905 -0.794557 -0.335986
4.29385 -0.796954 0.171241
4.29035 -0.78726 0.268564
4.29024 -0.787801 0.978837
4.29924 -0.761764 0.851262
4.29603 -0.773227 1.03211
4.28512 -0.138395 0.562107
4.29862 6.97086 0.613807
4.28295 7.11145 0.94626
4.2879 7.14355 0.871281
4.29144 7.18074 0.651369
4.28929 7.45772 0.0277328
4.2929 11.8081 0.923356
4.29328 11.843 0.962481
4.29119 11.8951 0.220695
4.29179 11.8975 0.256796
4.29517 11.8994 0.293914
4.3011 -0.776063 0.905917
4.30147 -0.748603 0.802519
4.30641 -0.757295 0.993313
4.30009 -0.737831 0.973864
4.30583 -0.71645 0.958274
4.30708 -0.687668 0.974942
4.31497 -0.672981 0.904139
4.30487 -0.674102 1.02832
4.30445 -0.647697 0.807861
4.30717 -0.659782 0.853552
4.3163 -0.655241 0.992573
4.30903 -0.633849 0.976185
4.31583 -0.616561 0.964484
4.31312 -0.325473 0.0310358
4.30956 0.506621 -0.453425
4.31761 7.07499 0.618286
4.31601 7.09865 0.943193
4.30134 7.41072 0.392575
4.31909 7.41298 0.430849
4.30555 7.45446 0.0548113
4.3037 11.8467 0.791612
4.31722 11.8465 0.900805
4.30434 11.8706 0.554241
4.31129 11.8681 0.688308
4.30788 11.897 0.339991
4.3223 -0.512979 0.0924838
4.32045 -0.496763 0.167926
4.3388 -0.481832 0.25603
4.32604 -0.229482 0.0331061
4.33496 -0.131497 0.0352857
4.33847 7.12775 0.899316
4.32018 7.14184 0.850546
4.3256 7.17347 0.687509
4.33558 7.41175 0.472001
4.33133 7.437 0.0845413
4.32554 11.8717 0.594516
4.34786 -0.0324844 0.0364273
4.34056 7.09808 0.942426
4.35636 7.13053 0.836552
4.35694 7.16658 0.726634
4.34804 7.4149 0.358166
4.34102 7.43852 0.122709
4.35778 11.8014 0.921809
4.35705 11.8294 0.995723
4.34454 11.845 0.846005
4.34943 11.8674 0.637647
4.35975 11.891 0.210263
4.36787 -0.5217 0.972922
4.37177 -0.486393 0.967695
4.37805 -0.463784 0.858088
4.37276 -0.474854 0.902926
4.3746 -0.474872 1.02295
4.37913 -0.45616 0.993306
4.37898 -0.437949 0.984735
4.37425 0.00548062 -0.45128
4.37706 0.1076 -0.45491
4.3678 7.09313 0.948552
4.36934 7.12997 0.876689
4.37304 7.16384 0.65067
4.36765 7.41496 0.389385
4.3689 7.43977 0.0109724
4.37269 11.844 0.789232
4.36385 11.8413 0.966152
4.36833 11.8644 0.548696
4.36231 11.8974 0.24751
4.36626 11.8985 0.287607
4.39279 -0.582015 1.02813
4.3859 -0.579932 0.905238
4.38925 -0.560217 0.994688
4.38304 -0.540919 0.982236
4.38489 -0.422827 0.979999
4.38361 -0.385265 0.963901
4.38864 -0.373793 0.902069
4.38545 -0.372746 1.01919
4.39793 -0.336981 0.98783
4.38959 0.169654 0.0345589
4.39151 0.27063 0.036918
4.39331 7.40811 0.428453
4.38899 7.43314 0.0379839
4.39003 11.8596 0.590793
4.38921 11.8446 0.902483
4.3859 11.8658 0.687998
4.38097 11.895 0.334674
4.40498 -0.596543 0.973577
4.40915 -0.570772 0.857075
4.4 -0.36681 0.861042
4.40005 -0.355142 0.99437
4.40345 -0.284129 0.959983
4.40793 -0.265828 0.863307
4.40855 -0.27675 0.902055
4.40129 -0.270614 1.01536
4.40993 -0.252088 0.993653
4.40989 -0.238042 0.991986
4.40055 7.0824 0.949549
4.40334 7.12588 0.852895
4.41816 7.12017 0.906896
4.40327 7.1672 0.689106
4.41676 7.41601 0.3519
4.4088 7.40981 0.471689
4.40185 7.43706 0.0772601
4.41256 7.43554 0.116344
4.41147 11.8347 0.845366
4.42529 -0.180991 0.956081
4.42386 -0.162839 0.865497
4.42843 -0.173686 0.901183
4.42816 -0.16852 1.01335
4.42785 -0.153072 0.994717
4.42384 -0.135078 0.995205
4.43492 -0.115212 1.00151
4.42023 0.0329908 -0.386317
4.42707 7.08081 0.945769
4.43133 7.13205 0.836367
4.43563 7.16216 0.731302
4.43636 11.8315 0.786488
4.43942 11.8394 0.969868
4.42881 11.8249 0.997317
4.43696 11.8603 0.542267
4.42185 11.8647 0.635303
4.42949 11.8904 0.19895
4.42566 11.8818 0.241663
4.4328 11.8853 0.282868
4.44814 -0.0828748 0.953046
4.45033 -0.0726419 0.901233
4.44602 -0.0694093 1.01042
4.44237 -0.0482078 0.84091
4.45081 -0.0598613 0.868515
4.45076 -0.0510284 0.994775
4.45582 -0.0311447 1.00017
4.44491 0.140326 -0.398167
4.45186 7.08148 0.950046
4.4527 7.11889 0.882196
4.44448 7.40836 0.38396
4.44208 7.43822 -0.00133467
4.45849 7.43622 0.0297871
4.45207 11.5859 0.323653
4.44134 11.817 0.923156
4.45824 11.8383 0.903989
4.45705 11.8941 0.329419
4.47249 -0.564712 0.814218
4.46095 -0.0123553 1.00954
4.46721 0.0324192 0.900455
4.46198 0.0212544 0.949292
4.46587 0.0337019 1.00755
4.46736 0.056696 0.847005
4.46775 0.0441055 0.871711
4.46668 0.0519843 0.995964
4.47079 0.0737955 1.00442
4.47798 0.0924923 1.01776
4.46331 7.07328 0.958909
4.47643 7.1724 0.69202
4.46617 7.40843 0.426208
4.46494 11.5394 0.244278
4.47838 11.5887 0.370037
4.46349 11.8591 0.586524
4.46145 11.8605 0.687602
4.49682 -0.550751 0.705126
4.4804 -0.150095 0.835908
4.48811 0.13846 0.900638
4.48381 0.128391 0.945485
4.48073 0.139807 1.00483
4.48836 0.158573 0.854091
4.48568 0.149097 0.873917
4.48959 0.160002 0.997163
4.48975 0.17874 1.00861
4.48899 0.197358 1.02507
4.49766 0.233496 0.942754
4.49458 0.246912 1.00214
4.48488 7.0792 0.955314
4.48924 7.11298 0.855369
4.49205 7.41329 0.344581
4.48305 7.40985 0.47145
4.48067 7.42968 0.0668283
4.49295 7.42931 0.107965
4.48982 11.4831 0.24776
4.48192 11.5467 0.2827
4.49689 11.5498 0.323975
4.49484 11.8093 0.998502
4.48445 11.8385 0.845231
4.49523 11.8591 0.631875
4.49945 11.8862 0.187528
4.50244 -0.554634 0.615911
4.50748 -0.466796 0.819992
4.50528 -0.457455 0.483112
4.5103 -0.449558 0.614274
4.50262 0.255063 0.877161
4.50099 0.243517 0.899922
4.50135 0.264464 0.860396
4.50249 0.265035 0.997447
4.50273 0.283654 1.01389
4.50401 0.302203 1.03332
4.51487 0.350575 0.899238
4.51345 0.353997 1.00038
4.51934 0.37136 0.866647
4.51541 0.372044 0.998778
4.50992 0.465367 -0.435504
4.51166 7.07183 0.950353
4.50345 7.10793 0.914387
4.51758 7.41015 0.379762
4.51404 7.43821 -0.012605
4.5108 11.4934 0.285319
4.50588 11.5256 0.375331
4.51129 11.654 0.544527
4.50981 11.8104 0.922647
4.50372 11.8277 0.784057
4.51458 11.8312 0.97338
4.50515 11.8534 0.536744
4.50478 11.8921 0.22879
4.5117 11.8891 0.27379
4.52024 -0.456909 0.544918
4.52165 -0.446608 0.701202
4.52246 -0.362878 0.825219
4.52914 -0.351903 0.546263
4.53816 -0.348459 0.612231
4.53546 -0.341455 0.696472
4.53505 -0.2459 0.547679
4.53945 -0.258982 0.831415
4.52149 0.341635 0.93894
4.52671 0.390579 1.01905
4.52705 0.410032 1.04251
4.53976 0.45662 0.89936
4.53834 0.448743 0.93621
4.53251 0.467991 0.883735
4.53031 0.461104 0.997652
4.53532 0.480059 1.00002
4.53767 0.497515 1.02341
4.5226 0.574686 -0.44712
4.52063 7.11426 0.83672
4.53601 7.1114 0.887815
4.52057 7.15236 0.735865
4.53568 7.43265 0.018458
4.52651 11.4397 0.245765
4.52159 11.487 0.329253
4.53228 11.8317 0.905541
4.5377 11.8541 0.582123
4.53621 11.8546 0.68718
4.53038 11.8835 0.323834
4.54219 -0.353441 0.485
4.55213 -0.248481 0.488329
4.54802 -0.24338 0.610562
4.55229 -0.238321 0.692648
4.54033 0.483258 0.87297
4.54509 0.518856 1.05181
4.55318 0.554872 0.932488
4.55946 0.579942 0.887966
4.54917 0.572189 0.995985
4.55833 0.59313 0.880292
4.55525 0.589051 1.00229
4.55664 0.609434 1.02876
4.55243 6.7994 0.596991
4.54363 7.06171 0.952363
4.54456 7.06915 0.967615
4.54184 7.40833 0.423977
4.54907 11.4511 0.284378
4.55132 11.4887 0.375634
4.55375 11.5257 0.54592
4.5451 11.5592 0.594912
4.54727 11.6062 0.543389
4.54712 11.6103 0.64157
4.55077 11.6622 0.589214
4.55392 11.8263 0.844559
4.56166 0.565662 0.899599
4.56712 0.633682 1.06119
4.57555 0.676695 0.900009
4.57502 0.667984 0.929823
4.5794 0.69191 0.891305
4.57104 0.680277 0.994201
4.56817 0.699059 1.00369
4.57032 0.704018 0.886731
4.57262 0.722348 1.03419
4.57386 7.06703 0.962845
4.56748 7.11663 0.858285
4.5628 7.16246 0.693591
4.56273 7.41975 0.0553483
4.56933 7.40954 0.337249
4.56323 7.40186 0.470017
4.5621 7.44075 0.106032
4.56736 11.4057 0.24311
4.57281 11.4609 0.325952
4.56577 11.8043 1.00007
4.57502 11.8219 0.780599
4.57843 11.8515 0.529431
4.56507 11.8447 0.630135
4.56842 11.88 0.177031
4.57652 11.8854 0.220309
4.58016 0.745499 1.07063
4.59144 0.791728 0.900483
4.59585 0.780118 0.92615
4.58589 0.79338 0.991644
4.59634 0.805874 0.894739
4.59209 0.814052 1.00604
4.59361 0.836244 1.04056
4.5915 7.09511 0.922888
4.59446 7.40853 0.374495
4.58516 7.44258 -0.023746
4.59559 7.44967 0.0146052
4.59374 11.5281 0.592428
4.58038 11.5543 0.642146
4.58081 11.8018 0.921103
4.59351 11.828 0.97709
4.58803 11.8846 0.265426
4.60133 0.821878 0.89504
4.6107 0.895222 0.92364
4.61933 0.907774 0.900794
4.60428 7.05974 0.954922
4.60678 7.10641 0.837354
4.60344 7.14724 0.739553
4.61463 7.45189 0.0578935
4.60508 11.4337 0.278399
4.60933 11.4652 0.372486
4.60977 11.505 0.540838
4.61819 11.7815 1.04191
4.60476 11.8205 0.906928
4.61007 11.8466 0.576624
4.61413 11.846 0.685709
4.6119 11.8805 0.316569
4.63061 6.87485 0.633188
4.63464 7.0558 0.955108
4.63545 7.05578 0.977128
4.62099 7.10506 0.892487
4.62624 7.3998 0.419569
4.62539 11.3924 0.23328
4.63362 11.4421 0.320979
4.63975 11.5323 0.640058
4.62234 11.8123 0.842816
4.63253 11.8529 0.216856
4.6577 6.76997 0.592138
4.6553 7.10622 0.860857
4.65518 7.14574 0.69501
4.65456 7.38719 0.467488
4.6506 7.40378 0.328894
4.64121 7.44104 0.098846
4.65313 11.5061 0.588341
4.64599 11.7893 0.921376
4.64004 11.7978 1.00263
4.64796 11.8171 0.777194
4.64757 11.847 0.627049
4.64558 11.8813 0.162855
4.66699 7.05042 0.969278
4.67557 7.09167 0.931645
4.67731 7.40384 0.369191
4.66073 7.44282 -0.0359724
4.67864 11.3704 0.226128
4.66191 11.412 0.272291
4.67033 11.4428 0.369401
4.67329 11.4911 0.535045
4.67294 11.8155 0.980509
4.69635 7.04846 0.959511
4.69965 7.09224 0.837857
4.69511 7.13483 0.744102
4.6819 7.4393 -0.00084722
4.69409 11.7786 1.0456
4.68969 11.8228 0.908872
4.69697 11.846 0.685556
4.71323 7.0915 0.899007
4.70848 7.39584 0.416284
4.70695 7.43853 0.043409
4.70083 11.4283 0.313225
4.70767 11.4806 0.585093
4.70802 11.5168 0.637266
4.71875 11.7921 1.00425
4.70344 11.8132 0.842674
4.7298 6.79415 0.590636
4.73692 7.03096 0.957373
4.73489 7.0348 0.988491
4.73429 7.39978 0.32062
4.72594 7.4406 0.0906944
4.73392 11.3476 0.216967
4.72215 11.3941 0.264339
4.7299 11.4696 0.529944
4.72167 11.7827 0.920943
4.72073 11.8074 0.77463
4.75121 7.0892 0.864303
4.74826 7.13315 0.697567
4.74674 7.3781 0.465143
4.74341 7.43728 -0.053311
4.74474 11.4293 0.361735
4.75712 11.7434 0.952083
4.75849 11.8133 0.985319
4.77702 6.78382 0.627814
4.76318 7.03818 0.97688
4.77615 7.07281 0.941084
4.76892 7.39076 0.360712
4.76754 7.43468 -0.0151249
4.76526 11.4098 0.306297
4.7738 11.4945 0.634236
4.76933 11.7658 1.04797
4.76587 11.8081 0.909187
4.77931 11.8383 0.684153
4.78756 6.84364 0.591787
4.79807 7.07699 0.838384
4.78286 7.13308 0.749947
4.79891 7.38925 0.410998
4.79128 7.44035 0.0333235
4.78421 11.3738 0.255331
4.79925 11.4562 0.522228
4.78185 11.4707 0.579537
4.79765 11.7739 0.920442
4.7906 11.7768 1.00551
4.78341 11.8036 0.841189
4.81583 6.93468 0.595948
4.80315 7.08848 0.904834
4.81046 7.28828 0.615046
4.8086 7.44607 0.0847089
4.80016 11.3368 0.2053
4.80858 11.4066 0.356668
4.80499 11.8058 0.770438
4.83826 7.13187 0.699448
4.83539 7.37876 0.46507
4.82417 7.39414 0.311356
4.82742 7.43647 -0.0684854
4.8385 11.3439 0.248938
4.82733 11.3845 0.299131
4.83898 11.473 0.632225
4.83574 11.7365 0.953669
4.84374 6.96573 0.968416
4.84682 7.35074 0.616388
4.85403 7.39145 0.354601
4.85646 11.311 0.196056
4.84647 11.4501 0.574547
4.84735 11.7561 1.05146
4.85203 11.8052 0.910979
4.8412 11.8031 0.988845
4.87756 6.77297 0.6265
4.86133 6.99629 0.597356
4.87331 7.13448 0.754919
4.87554 7.19977 0.704973
4.8663 7.4213 -0.0335465
4.86168 11.4353 0.516204
4.87887 11.7699 0.920146
4.87237 11.7682 1.00808
4.87761 11.7911 0.766717
4.86199 11.7943 0.839698
4.86099 11.8264 0.682612
4.89596 7.06977 0.600027
4.8967 7.23318 0.653213
4.88958 7.38899 0.407916
4.89958 11.3216 0.240857
4.89279 11.363 0.29212
4.8858 11.3928 0.34902
4.91161 6.8558 0.631461
4.91227 7.39091 0.30215
4.90381 7.41236 0.0125809
4.91363 7.4361 -0.0846241
4.91936 11.2914 0.184078
4.90985 11.4261 0.570438
4.90337 11.451 0.629188
4.91742 11.7303 0.955312
4.92484 6.97738 0.870559
4.93383 7.17469 0.760809
4.92856 7.35961 0.614502
4.92426 7.38083 0.464044
4.92374 7.41628 0.0639364
4.92494 11.415 0.509208
4.92535 11.7427 1.05484
4.93466 11.7986 0.913618
4.92684 11.7974 0.993543
4.95326 7.38147 0.346296
4.94676 7.4315 -0.044408
4.94113 10.834 0.222906
4.94318 10.9234 0.271771
4.95667 11.5195 0.689923
4.95911 11.7631 1.0108
4.95038 11.7919 0.839525
4.94665 11.8124 0.681047
4.96054 11.0019 0.261417
4.97466 11.3076 0.228176
4.96962 11.3515 0.281539
4.96097 11.7592 0.919649
4.96112 11.7853 0.763386
4.9947 6.80398 0.973866
4.99718 6.80209 1.01686
4.98683 7.38488 0.403779
4.99475 7.41548 0.000602722
4.98765 11.4165 0.563925
4.9835 11.438 0.625596
4.99878 11.7192 0.956796
5.01968 7.36043 0.611458
5.0056 7.38904 0.292041
5.0067 7.43347 -0.103765
5.0121 11.4148 0.499086
5.01549 11.428 0.328443
5.00863 11.7304 1.0583
5.01993 11.7866 0.915113
5.01969 11.7918 0.99832
5.02141 6.81367 1.00146
5.02283 6.85467 0.980755
5.03047 6.88754 0.970863
5.02438 6.89662 1.01911
5.03597 6.92392 1.00008
5.03986 6.9594 0.978228
5.03891 7.00317 1.02062
5.02071 7.38101 0.463036
5.02557 7.41009 0.0517762
5.02801 11.3082 0.158704
5.02297 11.7892 0.680095
5.03281 11.784 0.83812
5.04503 6.84148 0.964558
5.04201 6.9971 0.965431
5.04693 7.03415 0.999668
5.05441 7.06247 0.975624
5.05435 7.09997 0.960797
5.04512 7.10782 1.02198
5.05732 7.13801 0.999047
5.0568 7.17309 0.973133
5.05688 7.20773 1.02325
5.04897 7.38127 0.339265
5.04321 7.4276 -0.0605532
5.04582 11.7516 0.919277
5.04231 11.7507 1.01226
5.04218 11.7778 0.759976
5.06816 6.77804 0.626609
5.06274 6.84936 0.84192
5.07741 6.85494 0.921289
5.0653 7.19951 0.956043
5.06297 7.23636 0.998203
5.06747 7.27119 0.970332
5.07431 7.29655 0.952191
5.07081 7.30066 1.02532
5.07471 7.32909 0.998246
5.07917 7.35674 0.969147
5.0751 7.39922 1.02648
5.08512 6.89761 0.876688
5.0961 6.93504 0.84096
5.08282 6.92395 0.969546
5.09196 6.96279 0.923838
5.09522 7.00853 0.877287
5.09153 7.03507 0.972138
5.099 7.07645 0.924492
5.09977 7.1398 0.974524
5.09326 7.22646 0.652011
5.08888 7.37937 0.397646
5.08355 7.38415 0.948044
5.09015 7.41449 -0.0134605
5.08285 7.42183 0.998252
5.09257 7.44343 0.967015
5.09418 7.47144 0.944902
5.09043 7.48826 1.02844
5.09183 7.51153 0.99817
5.09794 7.53317 0.965897
5.08237 11.7084 0.95831
5.09663 11.72 1.06188
5.10288 7.04737 0.839569
5.10706 7.11336 0.877712
5.11281 7.14973 0.838896
5.10892 7.1787 0.926817
5.11198 7.21955 0.877108
5.10805 7.2409 0.977797
5.11475 7.27821 0.927013
5.10808 7.38151 0.280845
5.10843 7.42619 -0.124966
5.11032 7.42593 0.0461392
5.10372 7.55682 0.940688
5.1035 7.56979 1.03114
5.10797 7.59394 0.998933
5.11025 7.61792 0.963692
5.11572 7.63657 0.938322
5.10776 7.6575 1.03295
5.11913 7.67308 0.998541
5.11531 7.7366 1.03452
5.11466 11.7771 0.678653
5.11133 11.7794 1.00187
5.11527 11.7829 0.916972
5.12306 7.24989 0.837156
5.12507 7.31188 0.878153
5.12002 7.33486 0.979881
5.13227 7.34447 0.836231
5.12954 7.36803 0.928996
5.13405 7.40144 0.878067
5.139 7.42948 -0.0765231
5.12338 7.43262 0.981997
5.13431 7.46192 0.931005
5.13858 7.494 0.87803
5.13376 7.52181 0.984916
5.13746 7.55471 0.931962
5.12085 7.6979 0.963321
5.12663 7.71803 0.934999
5.12972 7.74942 0.999055
5.12649 7.77821 0.961909
5.13338 7.79671 0.932546
5.1298 7.81068 1.03701
5.12846 7.83474 0.998731
5.13872 7.84847 0.961248
5.13741 7.88626 1.03847
5.13962 7.90665 1.00011
5.13868 7.98623 0.99961
5.12956 11.7421 0.919832
5.12908 11.7419 1.01487
5.13258 11.7744 0.756792
5.12654 11.7792 0.836928
5.15938 6.79236 0.626994
5.14529 6.99132 0.70016
5.14012 7.33548 0.605901
5.15728 7.34381 0.455256
5.14039 7.43707 0.836232
5.14301 7.52715 0.835097
5.14203 7.58458 0.87892
5.14985 7.61283 0.833866
5.14279 7.60766 0.987715
5.15322 7.63428 0.933631
5.15306 7.6658 0.879593
5.15728 7.69405 0.833501
5.14823 7.69348 0.990477
5.15961 7.76882 0.992969
5.14537 7.86925 0.929954
5.14795 7.92156 0.959645
5.15209 7.94072 0.927273
5.17236 7.02543 0.640479
5.16257 7.02032 0.764286
5.16804 7.08323 0.705292
5.16531 7.13352 0.771885
5.17944 7.18423 0.711595
5.16735 7.24258 0.778347
5.17782 7.33797 0.785464
5.17607 7.35216 0.325641
5.16148 7.716 0.935292
5.16358 7.74424 0.880173
5.16503 7.77306 0.83307
5.1684 7.79438 0.936833
5.16687 7.82622 0.88079
5.17309 7.84984 0.832572
5.16987 7.8458 0.995501
5.17338 7.87384 0.938389
5.17886 7.89719 0.88115
5.16511 7.93073 0.99713
5.17588 7.95163 0.939867
5.1632 8.01157 0.998659
5.17152 11.7 0.959959
5.1838 7.23657 0.652256
5.18274 7.28805 0.717904
5.18721 7.33682 0.657453
5.19644 7.38018 0.605886
5.18533 7.38769 0.724074
5.1806 7.42474 -0.024218
5.19269 7.43238 0.663524
5.18159 7.43598 0.791594
5.19832 7.47567 0.610917
5.19232 7.47941 0.730039
5.19978 7.52053 0.668377
5.18547 7.53039 0.797612
5.19712 7.57082 0.734971
5.19432 7.61606 0.803406
5.18566 7.92002 0.831912
5.1825 7.97335 0.881587
5.1896 7.99399 0.831283
5.18902 8.02091 0.941185
5.19259 8.04177 0.882847
5.19831 8.06271 0.831538
5.19992 8.11072 0.884096
5.18604 11.713 1.06657
5.21954 7.35028 0.38806
5.20627 7.42718 -0.143944
5.20634 7.56083 0.614685
5.20098 7.61185 0.67327
5.20279 7.65371 0.618577
5.20063 7.65884 0.740784
5.2111 7.69234 0.676912
5.20016 7.70084 0.80814
5.21127 7.73305 0.622166
5.20682 7.74142 0.745452
5.21507 7.77458 0.681547
5.2038 7.78526 0.813841
5.21813 7.81123 0.625703
5.21312 7.82042 0.749008
5.21717 7.85427 0.686082
5.21486 7.86269 0.818396
5.21408 7.90171 0.754583
5.21839 7.9421 0.823938
5.20231 8.13308 0.830796
5.2097 11.0335 0.207931
5.21941 11.7342 0.919505
5.21815 11.7705 0.83559
5.21268 11.7746 0.917705
5.21139 11.774 1.00672
5.22847 7.88452 0.62912
5.22416 7.92885 0.689506
5.23244 7.95822 0.631484
5.22443 7.97496 0.759
5.22975 8.00364 0.693922
5.22005 8.01901 0.828381
5.23444 8.03294 0.634861
5.22529 8.05132 0.762417
5.23316 8.07812 0.697306
5.22822 8.09192 0.832765
5.23794 8.10383 0.638132
5.22986 8.12414 0.766761
5.23724 8.14816 0.701557
5.23093 8.16219 0.837009
5.23871 8.19263 0.771012
5.23924 8.23155 0.841282
5.22305 11.7331 1.01856
5.22446 11.7671 0.752502
5.25201 7.3514 0.453464
5.25871 7.41121 0.393384
5.2537 7.45285 0.466685
5.25994 7.54645 0.479706
5.25802 7.64276 0.491728
5.25926 7.73147 0.502542
5.24342 8.17365 0.641391
5.25293 8.21052 0.703684
5.25099 8.23884 0.643524
5.24546 8.25722 0.774118
5.24949 8.28256 0.707922
5.25717 8.30425 0.64665
5.24929 8.34835 0.710995
5.26386 7.32903 0.257772
5.26808 7.3653 0.320993
5.26808 7.42372 0.268805
5.2709 7.46016 0.333018
5.27187 7.51557 0.280745
5.26295 7.50586 0.405416
5.26475 7.55708 0.346017
5.27247 7.60509 0.291579
5.2636 7.60035 0.417407
5.27054 7.64299 0.355788
5.27941 7.68442 0.300154
5.27079 7.686 0.428186
5.27214 7.7295 0.366537
5.26922 7.77511 0.439985
5.27352 7.81458 0.378239
5.26347 7.81616 0.51326
5.27956 7.85151 0.320432
5.27102 7.85806 0.449622
5.27948 7.89192 0.386741
5.27143 7.89248 0.521751
5.27757 7.93455 0.459105
5.27223 7.97343 0.531315
5.27317 8.01419 0.467575
5.27484 8.052 0.539823
5.27804 8.12973 0.54931
5.27784 8.20376 0.556645
5.26091 8.36795 0.648697
5.26121 11.6908 0.962586
5.27762 11.6989 1.07107
5.28208 7.36543 0.0119709
5.28198 7.76795 0.309818
5.2873 7.92646 0.327878
5.28443 7.96726 0.395171
5.28804 8.00241 0.337284
5.28061 8.04606 0.40462
5.28521 8.07824 0.345649
5.28311 8.08452 0.474897
5.28733 8.11406 0.410835
5.28773 8.14687 0.351841
5.29025 8.15528 0.482203
5.28888 8.18567 0.418112
5.29623 8.21245 0.357998
5.28685 8.23187 0.491588
5.29302 8.25542 0.426357
5.28361 8.27473 0.563945
5.29656 8.28067 0.365155
5.28822 8.30209 0.498818
5.29616 8.32322 0.43353
5.2838 8.34652 0.572214
5.29617 8.36847 0.504995
5.2997 8.38885 0.439637
5.29055 8.40959 0.577273
5.29964 8.45431 0.445703
5.29995 8.47719 0.384394
5.29496 8.4759 0.583411
5.29888 8.49898 0.518143
5.31362 7.35765 -0.124026
5.3003 8.3477 0.371309
5.3048 8.41031 0.377332
5.30208 8.43087 0.511025
5.31477 8.59314 0.392203
5.3137 11.7234 0.920127
5.3173 11.7598 0.834266
5.31916 11.7689 0.919618
5.31793 11.7647 1.01152
5.33433 7.42155 0.0192777
5.33524 7.52116 0.0404378
5.33378 7.61893 0.0625158
5.3316 7.71115 0.0824108
5.33267 7.80083 0.101258
5.33966 7.83913 0.041504
5.33584 7.88463 0.11694
5.33921 7.92263 0.0591405
5.33357 7.97049 0.135633
5.33157 8.05284 0.151216
5.33465 8.13027 0.165696
5.33799 8.20417 0.178065
5.33755 8.27643 0.190345
5.33853 8.34851 0.202633
5.33813 8.49085 0.227128
5.33917 8.51877 0.0989484
5.33039 8.5267 0.385265
5.33188 9.38668 0.684546
5.3308 9.38657 0.756571
5.33715 9.43989 0.758317
5.33894 9.45551 0.839873
5.33513 9.49465 0.760023
5.3386 9.5001 0.834272
5.33486 9.50949 0.841533
5.33707 9.55757 0.837068
5.32531 11.73 1.02151
5.32322 11.7623 0.748358
5.34815 7.3699 -0.0612528
5.34295 7.39781 -0.178491
5.34831 7.42674 -0.114489
5.34537 7.47418 -0.0369816
5.34719 7.48498 -0.161691
5.34662 7.5231 -0.0924575
5.34959 7.57445 -0.141836
5.34309 7.57134 -0.014931
5.34477 7.61806 -0.0704719
5.34921 7.66432 -0.122998
5.34308 7.66395 0.00599885
5.34562 7.70634 -0.0516708
5.35091 7.74824 -0.105326
5.34719 7.74972 0.0227532
5.34472 7.79204 -0.0339696
5.34903 7.83193 -0.087698
5.34932 7.87066 -0.0184367
5.34942 7.91111 -0.0721905
5.34429 7.95195 -0.00191724
5.35513 7.98183 -0.0598966
5.34708 7.99874 0.0726267
5.34593 8.02957 0.0125536
5.34835 8.06054 -0.0444769
5.34086 8.08159 0.0901837
5.34459 8.10613 0.027961
5.3539 8.12986 -0.032229
5.34479 8.1547 0.102535
5.34954 8.17624 0.040228
5.35868 8.1986 -0.0210077
5.35055 8.22541 0.114829
5.3511 8.24753 0.052497
5.35199 8.27235 -0.00674415
5.3445 8.2984 0.128074
5.34826 8.31794 0.0656943
5.34616 8.34174 0.00639004
5.34651 8.36752 0.139279
5.35235 8.38117 0.0737332
5.35909 8.40168 0.013415
5.34571 8.43698 0.151467
5.34031 8.4212 0.214949
5.35057 8.44863 0.0858474
5.35475 8.46597 0.0234025
5.34092 8.50841 0.163675
5.34236 8.53411 0.0364302
5.3543 8.55328 0.233265
5.35214 8.59162 0.0433463
5.34716 8.62294 0.245393
5.35992 8.65012 0.0502732
5.35993 9.42391 0.443874
5.3443 9.43175 0.516001
5.34101 9.43951 0.686305
5.34251 9.44109 0.585315
5.34646 9.44589 0.655545
5.35828 9.47835 0.447575
5.35267 9.4861 0.5178
5.34969 9.49697 0.588151
5.3427 9.4908 0.686939
5.34467 9.50387 0.658356
5.35323 9.54085 0.520533
5.35908 9.55326 0.590022
5.34744 9.559 0.661123
5.34545 9.54402 0.688646
5.34172 9.54928 0.762814
5.34521 9.56362 0.842345
5.35882 9.59558 0.522316
5.34984 9.59835 0.690404
5.35806 9.60686 0.591702
5.34707 9.61679 0.662941
5.34774 9.60476 0.764625
5.3439 9.6136 0.839905
5.35056 9.61799 0.843114
5.35341 9.6521 0.692135
5.35688 9.66403 0.594493
5.3525 9.67509 0.665836
5.34877 9.66039 0.766389
5.34795 9.6701 0.842729
5.3591 9.72 0.59628
5.35921 9.70619 0.6939
5.35619 9.7156 0.769207
5.35676 9.735 0.668769
5.35423 9.72697 0.844587
5.35642 9.77065 0.770945
5.35167 9.78248 0.847311
5.35659 9.79039 0.924653
5.35423 11.6802 0.964204
5.35677 11.8035 0.671957
5.37507 9.51439 0.264782
5.37763 9.53103 0.331369
5.36645 9.53133 0.448328
5.379 9.57005 0.266577
5.37273 9.58992 0.335177
5.36319 9.58449 0.451973
5.37078 9.63823 0.452744
5.36282 9.62192 0.906398
5.37162 9.65043 0.339075
5.3626 9.64776 0.522999
5.37704 9.6767 0.90727
5.37515 9.6896 0.453408
5.36179 9.70273 0.525725
5.37462 9.73135 0.906967
5.37112 9.74221 0.456026
5.3628 9.75997 0.694632
5.37424 9.76001 0.526658
5.36616 9.7795 0.598229
5.37255 9.79758 0.457787
5.36104 9.79494 0.670703
5.3622 9.78043 0.847354
5.37205 9.81519 0.529376
5.37327 9.81612 0.696509
5.37222 9.83702 0.600104
5.36386 9.82588 0.772763
5.37226 9.83673 0.848232
5.37818 9.85234 0.45857
5.36731 9.85386 0.672624
5.3632 9.84059 0.849261
5.37797 9.84946 0.928736
5.37069 9.871 0.531121
5.37525 9.86875 0.697188
5.37049 9.89503 0.601916
5.36574 9.88208 0.774554
5.36391 9.8984 0.852092
5.36301 9.91369 0.674467
5.36601 9.91245 0.9326
5.37958 9.92815 0.531013
5.3741 9.92404 0.69892
5.36983 9.93862 0.776378
5.37598 9.95339 0.602811
5.3671 9.95788 0.855001
5.3677 9.97146 0.675336
5.37443 9.97314 0.936601
5.37941 9.98234 0.53272
5.3736 9.99732 0.778268
5.37686 10.0096 0.603592
5.36948 10.0168 0.856883
5.37665 10.0336 0.676386
5.37647 10.0343 0.93955
5.37819 10.0566 0.781183
5.37882 10.0981 0.678443
5.37934 10.096 0.942525
5.37909 10.2833 0.950432
5.37944 10.3152 0.610253
5.37588 11.6893 1.07577
5.38393 9.62768 0.268445
5.39702 9.65812 0.1995
5.38386 9.68523 0.271259
5.38036 9.70971 0.340033
5.38741 9.74304 0.273119
5.38191 9.76851 0.341903
5.38275 9.78811 0.90784
5.39158 9.80009 0.27396
5.39813 9.82429 0.204751
5.38867 9.82881 0.341872
5.39199 9.85555 0.273711
5.38477 9.84325 0.908598
5.39675 9.87709 0.205401
5.38644 9.88598 0.343652
5.38985 9.8992 0.909414
5.38775 9.91367 0.276501
5.38602 9.90747 0.459388
5.38602 9.94579 0.344533
5.38019 9.94944 0.851867
5.3991 9.95789 0.910359
5.39435 9.97259 0.275425
5.38888 9.96266 0.460157
5.39029 9.96633 0.933547
5.3804 9.98091 0.700778
5.39478 10.0101 0.344649
5.39154 10.0165 0.45988
5.3992 10.0141 0.911133
5.39473 10.033 0.276333
5.38394 10.0382 0.702621
5.38633 10.0405 0.532624
5.39017 10.0705 0.345505
5.39882 10.0724 0.460718
5.3864 10.0709 0.604622
5.38095 10.0785 0.859945
5.38823 10.0987 0.534478
5.39028 10.0951 0.703478
5.38908 10.0801 0.937121
5.38558 10.1153 0.783113
5.39437 10.1326 0.344505
5.3925 10.1283 0.462415
5.38535 10.1331 0.606573
5.38302 10.1396 0.861894
5.39792 10.1552 0.705453
5.38444 10.158 0.944534
5.39278 10.16 0.535459
5.38139 10.1605 0.679436
5.3916 10.1744 0.784036
5.39437 10.1952 0.344479
5.39906 10.1886 0.462384
5.39072 10.1951 0.607581
5.38949 10.1985 0.94286
5.39229 10.2009 0.864922
5.39795 10.2206 0.535421
5.38418 10.2243 0.681475
5.398 10.2582 0.342498
5.39401 10.2682 0.707975
5.38775 10.261 0.866772
5.39985 10.2925 0.681787
5.3933 10.3029 0.464928
5.38811 10.3246 0.869781
5.39343 10.3521 0.681597
5.39646 10.3539 0.954837
5.39864 10.3877 0.340587
5.39691 10.3811 0.608507
5.397 10.3918 0.871989
5.39367 10.4177 0.682667
5.39372 10.4202 0.957899
5.39997 10.4463 0.608594
5.39786 10.4889 0.961107
5.41748 8.54181 0.153505
5.40379 9.71339 0.200312
5.40055 9.76852 0.203017
5.40235 9.93398 0.205251
5.40375 9.99141 0.206076
5.40174 10.05 0.206902
5.40678 10.0717 0.913026
5.40014 10.0935 0.275295
5.40758 10.1083 0.205799
5.40484 10.1229 0.856589
5.40356 10.155 0.274267
5.40621 10.1662 0.205608
5.41033 10.19 0.914792
5.40398 10.2155 0.274177
5.40124 10.2237 0.206372
5.40474 10.2372 0.786151
5.41364 10.25 0.461465
5.40167 10.2414 0.860291
5.40963 10.2775 0.271186
5.40282 10.2642 0.946068
5.40019 10.2973 0.789
5.41835 10.3057 0.862491
5.40586 10.3385 0.27107
5.41486 10.334 0.709263
5.41172 10.3293 0.949212
5.40147 10.3471 0.133221
5.40477 10.343 0.202163
5.4005 10.3422 0.53728
5.40592 10.3652 0.464021
5.4072 10.3619 0.791109
5.41926 10.3666 0.86442
5.40952 10.3936 0.711086
5.41234 10.4105 0.12933
5.40921 10.4065 0.20021
5.4031 10.4015 0.270029
5.40189 10.4013 0.536155
5.41694 10.4264 0.46206
5.40431 10.4232 0.793012
5.40167 10.4565 0.337783
5.41491 10.4571 0.712142
5.40228 10.4588 0.875157
5.41583 10.4721 0.126304
5.41228 10.4703 0.197249
5.40735 10.4687 0.267187
5.41318 10.4688 0.535398
5.41413 10.4861 0.462912
5.40121 10.4886 0.682981
5.41485 10.4915 0.795273
5.40406 10.5135 0.608753
5.41096 10.5332 0.195217
5.4086 10.5348 0.264283
5.40331 10.5254 0.334971
5.41081 10.5313 0.536343
5.41891 10.5208 0.714192
5.41004 10.5275 0.877404
5.41661 10.5521 0.463018
5.40234 10.5598 0.684237
5.4177 10.5568 0.797362
5.40342 10.5573 0.963321
5.40275 10.5939 0.333123
5.408 10.5843 0.610024
5.41642 10.5966 0.879646
5.41884 10.6006 0.19042
5.41086 10.603 0.261452
5.41809 10.6162 0.462051
5.41535 10.6013 0.536595
5.40269 10.6305 0.684467
5.4034 10.6267 0.966509
5.40653 10.6524 0.609155
5.41314 10.6712 0.257622
5.4132 10.6696 0.327612
5.41808 10.6687 0.535748
5.4087 10.7052 0.684885
5.41262 10.7037 0.971035
5.41292 10.7249 0.609507
5.41667 10.7412 0.322902
5.41734 10.7985 0.608872
5.41194 10.7805 0.684288
5.41744 10.7802 0.974495
5.40853 10.8115 0.321031
5.4188 10.8559 0.683734
5.41132 11.7148 0.919855
5.43184 10.2555 0.917077
5.42846 10.2671 0.605237
5.42364 10.2888 0.533832
5.43752 10.3178 0.919099
5.42449 10.3957 0.95344
5.42431 10.4303 0.86648
5.42067 10.4583 0.955372
5.43075 10.4938 0.868547
5.42172 10.5355 0.12236
5.43233 10.5264 0.959641
5.43634 10.5602 0.8707
5.42563 10.5876 0.715367
5.42905 10.5917 0.962666
5.43081 10.6014 0.117526
5.42443 10.6237 0.798538
5.42745 10.651 0.716384
5.42774 10.6617 0.114393
5.42674 10.6681 0.184624
5.42083 10.6666 0.8829
5.42059 10.6822 0.462157
5.42828 10.6946 0.800812
5.43204 10.7289 0.109553
5.42382 10.7348 0.182695
5.42566 10.7397 0.535062
5.43713 10.7223 0.717732
5.42353 10.7391 0.885214
5.42322 10.7441 0.251019
5.42634 10.7506 0.461371
5.43377 10.7666 0.80314
5.43735 10.7981 0.104786
5.43012 10.8061 0.177002
5.42469 10.8167 0.247319
5.43271 10.8182 0.458567
5.42944 10.8092 0.533288
5.42836 10.8156 0.888674
5.43924 10.8685 0.101022
5.42218 10.8767 0.534342
5.42178 10.8722 0.607237
5.42521 10.8611 0.979126
5.4356 10.8817 0.171439
5.42596 10.8929 0.242731
5.42439 10.8951 0.312824
5.43774 10.891 0.457913
5.43812 10.8955 0.891294
5.42977 10.9392 0.682472
5.43796 10.9586 0.531085
5.42931 10.9518 0.605822
5.43545 10.9437 0.982838
5.42486 10.9673 0.237062
5.42404 10.9751 0.308339
5.4295 11.0193 0.681993
5.43761 11.0299 0.161125
5.42963 11.0311 0.605323
5.43931 11.0268 0.986497
5.43354 11.0504 0.229767
5.42451 11.0557 0.302881
5.43585 11.1159 0.604059
5.43474 11.1071 0.681813
5.43782 11.1327 0.2234
5.43158 11.1426 0.295689
5.437 11.194 0.680573
5.43248 11.2261 0.288325
5.42828 11.4691 0.194889
5.42596 11.7186 1.02518
5.42487 11.7535 0.743116
5.4243 11.7571 0.833273
5.42025 11.757 0.921279
5.43183 11.7605 1.01756
5.45176 8.53842 0.0777075
5.45384 9.60268 0.182325
5.45382 10.142 0.915725
5.44173 10.1913 0.859123
5.45033 10.2395 0.95178
5.44461 10.3377 0.332475
5.45155 10.3488 1.00727
5.44129 10.3812 0.920136
5.45421 10.4138 1.01034
5.45117 10.4462 0.922286
5.45384 10.5112 0.924364
5.44524 10.6289 0.873958
5.44039 10.6656 0.967115
5.45025 10.6998 0.876245
5.45035 10.7398 0.970558
5.45691 10.7719 0.879584
5.44426 10.7955 0.720113
5.45837 10.8152 0.975016
5.44442 10.8435 0.805673
5.45223 10.8693 0.72152
5.44682 10.9182 0.808054
5.44276 10.9401 0.0953122
5.4411 10.9574 0.164877
5.45498 10.9419 0.722836
5.44603 10.9663 0.455367
5.44754 10.9776 0.894979
5.45438 10.9978 0.810641
5.44969 11.0157 0.0877591
5.44049 11.0383 0.53062
5.45055 11.0449 0.45489
5.44848 11.0561 0.897466
5.44921 11.0893 0.0830706
5.44771 11.1129 0.152839
5.44606 11.1189 0.529217
5.44867 11.1125 0.990295
5.45348 11.1224 0.45336
5.44055 11.2138 0.21498
5.45693 11.2059 0.527068
5.44855 11.2055 0.602011
5.45924 11.2051 0.995324
5.44943 11.2926 0.600763
